ply
format ascii 1.0
element vertex 781
comment vertices
property float x
property float y
property float z
end_header
7.94911909103393555 27.616119384765625 -13.0489521026611328
13.4825906753540039 17.7183475494384766 -10.8355617523193359
-4.57764196395874023 -30.72137451171875 5.39529609680175781
-13.7338943481445312 -22.3093624114990234 9.66617012023925781
-12.8324661254882812 26.7628135681152344 -12.7986049652099609
-15.2877359390258789 -5.46506023406982422 -3.71918416023254395
5.36959600448608398 27.9464302062988281 3.14147734642028809
3.40717649459838867 -13.3968133926391602 -15.7072267532348633
-3.51747941970825195 -30.2864799499511719 -1.10670602321624756
12.7196989059448242 27.8633613586425781 -9.57188510894775391
12.037541389465332 1.06469178199768066 11.9574403762817383
3.19714069366455078 8.00491809844970703 17.3087310791015625
12.4077577590942383 19.8603019714355469 10.9448757171630859
-5.10223531723022461 27.2472476959228516 -5.84364700317382812
15.9528102874755859 13.6724948883056641 -7.06265830993652344
17.0243072509765625 -22.8968067169189453 3.63588166236877441
-12.9574308395385742 9.25700092315673828 -10.2961244583129883
-12.1409730911254883 11.9674530029296875 10.2164430618286133
-3.49239802360534668 -30.5483722686767578 8.47682666778564453
-14.3950319290161133 -18.4502372741699219 8.51743698120117188
2.36094760894775391 28.3607711791992188 3.15848875045776367
11.2771224975585938 4.17206573486328125 -12.6445751190185547
-14.1776218414306641 -2.9677579402923584 -6.75932693481445312
-16.0076942443847656 -0.369845181703567505 -0.246970027685165405
16.7200031280517578 0.360740244388580322 -4.93242740631103516
12.3951950073242188 27.8731441497802734 -6.92318153381347656
-5.5688624382019043 -17.3671340942382812 16.2389812469482422
-12.9546699523925781 13.8705978393554688 8.95694065093994141
16.1689167022705078 -24.3961429595947266 6.11481332778930664
-6.67420625686645508 7.84036970138549805 -15.5529727935791016
7.39533472061157227 12.7098855972290039 16.2996883392333984
-15.8591747283935547 22.9650230407714844 -6.3263859748840332
11.9128217697143555 -4.44577264785766602 -12.3873920440673828
4.01708364486694336 12.0727767944335938 17.1549491882324219
-5.45884609222412109 15.2052555084228516 15.9126815795898438
-0.356435090303421021 -0.99901348352432251 17.3075237274169922
-1.93535292148590088 26.0855312347412109 -16.7953071594238281
-16.6616859436035156 26.0910987854003906 -5.97811317443847656
-8.81241226196289062 -30.4156284332275391 7.15032291412353516
13.5386857986450195 5.34148073196411133 10.1437921524047852
14.7746791839599609 27.7372665405273438 -5.48462629318237305
-10.5957565307617188 8.35971355438232422 12.1965856552124023
9.08109760284423828 8.70598411560058594 15.576746940612793
15.0512723922729492 -9.18367958068847656 7.97945690155029297
-2.15438699722290039 27.5552806854248047 -5.61006355285644531
17.1872940063476562 21.5227317810058594 -1.20072603225708008
-12.6871738433837891 -3.71659159660339355 9.81676387786865234
-9.67216110229492188 8.16770362854003906 13.2056436538696289
-8.90792369842529297 4.24741077423095703 14.0661630630493164
-7.46845149993896484 -30.345794677734375 0.803562641143798828
17.0535030364990234 -22.2223739624023438 -3.69493818283081055
5.62869405746459961 27.8878135681152344 -5.62331676483154297
-5.71083498001098633 4.0679779052734375 15.8573856353759766
4.31411075592041016 -25.8529491424560547 17.3132266998291016
-7.69702911376953125 -5.53520631790161133 15.0319690704345703
-0.859228789806365967 27.5811958312988281 -5.7311100959777832
-1.76863336563110352 19.2350845336914062 -17.100433349609375
10.3776702880859375 26.9687023162841797 14.7064809799194336
-14.2387256622314453 -12.5135583877563477 -6.26183414459228516
-4.90920019149780273 7.89803695678710938 -15.9002456665039062
-5.8038330078125 -23.4618606567382812 16.8183670043945312
9.19645881652832031 -18.2062969207763672 -14.3562650680541992
-16.1094799041748047 6.86378955841064453 -1.80648148059844971
-5.05557155609130859 27.7850971221923828 -12.7169380187988281
12.4113998413085938 27.9225502014160156 3.18061947822570801
15.7125759124755859 -9.0586700439453125 6.84286069869995117
-11.1088085174560547 -23.1684093475341797 13.1566610336303711
5.76196527481079102 27.230682373046875 -16.01092529296875
17.3388118743896484 9.47726058959960938 -1.16124296188354492
3.50300955772399902 -16.8917827606201172 17.5141372680664062
-16.2105636596679688 5.25943708419799805 -1.62739300727844238
6.91890096664428711 27.2208728790283203 -15.2440185546875
-6.20553874969482422 -10.2445411682128906 -15.3390464782714844
1.68559432029724121 -2.84241795539855957 -15.8079910278320312
-17.0491523742675781 22.8301658630371094 -0.28075835108757019
5.86236572265625 -29.8159923553466797 14.2070932388305664
-9.783050537109375 16.3782844543457031 12.902679443359375
12.9241771697998047 2.95680785179138184 10.8819808959960938
-9.4439544677734375 27.0576019287109375 -1.11057054996490479
-7.0882878303527832 10.4012041091918945 -15.558812141418457
-1.30062079429626465 -17.1286334991455078 17.3049068450927734
12.1297769546508789 -1.86035215854644775 11.7182950973510742
16.0213375091552734 19.3969440460205078 5.88019752502441406
17.0646305084228516 15.1204929351806641 -3.23606729507446289
14.2992401123046875 -26.5845317840576172 -9.7290496826171875
13.2818613052368164 -27.6836662292480469 10.6988773345947266
-1.46913516521453857 8.08837413787841797 17.106414794921875
13.4769515991210938 18.6061763763427734 9.77631950378417969
-1.38122272491455078 14.8206195831298828 17.0882453918457031
-12.8570079803466797 14.2987890243530273 9.06250476837158203
11.570490837097168 -28.9900245666503906 12.5188484191894531
15.3997974395751953 -19.6271934509277344 7.6960902214050293
-6.04710721969604492 -21.6548843383789062 -15.4015388488769531
3.65214443206787109 5.7608647346496582 17.2639312744140625
-14.0409059524536133 -28.9744625091552734 5.86972236633300781
-15.7697944641113281 18.5566616058349609 3.27219867706298828
-1.91559123992919922 16.8961429595947266 -17.1422538757324219
-15.7174158096313477 -27.5426998138427734 -1.12885558605194092
-15.1500377655029297 0.62154996395111084 -4.41600513458251953
15.0242404937744141 -4.99396038055419922 -8.60607624053955078
7.17818117141723633 -14.6988897323608398 16.4928092956542969
1.56169509887695312 -10.6782865524291992 -15.966496467590332
-4.02206516265869141 -21.1467514038085938 -15.9755878448486328
-15.1455392837524414 4.55601263046264648 -4.76881599426269531
-8.53794670104980469 27.170318603515625 2.43425989151000977
11.3110256195068359 15.2608156204223633 -12.8106145858764648
17.1527900695800781 -21.1564826965332031 -3.43756794929504395
16.7487754821777344 -7.14924049377441406 3.63872265815734863
-1.6995856761932373 21.3335018157958984 17.1391277313232422
-14.9499502182006836 -8.50146198272705078 -4.33190679550170898
-5.30631303787231445 -29.7298030853271484 -8.79047679901123047
-16.2011451721191406 11.1109952926635742 -1.68655753135681152
-3.04117465019226074 -6.59353780746459961 17.0053482055664062
-15.9527854919433594 2.73392248153686523 2.75717306137084961
1.03033208847045898 26.2880573272705078 17.3162822723388672
5.23565959930419922 30.0456428527832031 -0.297637432813644409
11.9828052520751953 -6.77322483062744141 -12.2697734832763672
-4.76465463638305664 -3.40016698837280273 16.3603248596191406
-7.78307819366455078 -28.7353172302246094 -14.1130304336547852
16.1404209136962891 5.3920750617980957 6.71360111236572266
3.72863245010375977 9.29551029205322266 -15.9423971176147461
15.6608657836914062 -19.7878437042236328 7.10103893280029297
8.15650558471679688 17.4499263763427734 -14.8663406372070312
-9.99965667724609375 18.3007831573486328 12.8677845001220703
9.128753662109375 -29.9265975952148438 -10.3310461044311523
-5.40659189224243164 -13.983149528503418 -15.6888761520385742
10.4311790466308594 -15.3988122940063477 14.7978181838989258
-5.95081472396850586 1.53334617614746094 15.9913759231567383
-2.84638023376464844 -14.6005706787109375 -15.9045743942260742
-11.6556863784790039 -11.9370212554931641 -11.5717887878417969
-16.1094131469726562 -24.9290351867675781 1.2770693302154541
-3.45862483978271484 -2.8709418773651123 16.7289142608642578
14.9827632904052734 14.7190179824829102 -9.42397785186767578
1.14532053470611572 30.4397296905517578 1.57717525959014893
11.3010845184326172 -7.12306690216064453 13.6022825241088867
-12.2525634765625 13.5193243026733398 -12.0197162628173828
3.79544997215270996 -6.89499807357788086 -15.4973020553588867
-10.7461090087890625 -5.58300876617431641 12.688990592956543
-5.96915578842163086 -10.8086376190185547 -15.424433708190918
8.70457077026367188 12.4318752288818359 15.7069358825683594
15.3940067291259766 13.0181360244750977 -7.68797636032104492
12.162968635559082 7.06417942047119141 12.4801807403564453
-13.8670310974121094 -15.5452594757080078 9.23673248291015625
15.3445138931274414 -3.1675269603729248 -8.16724967956542969
16.442047119140625 -8.23712444305419922 4.27069187164306641
-15.4137077331542969 -11.4137516021728516 4.52086210250854492
-10.7671146392822266 -5.42109012603759766 12.6778230667114258
-9.73049354553222656 -25.1640148162841797 -13.5307273864746094
-12.470952033996582 27.6836910247802734 8.42003536224365234
-10.316502571105957 -16.3717136383056641 14.0616922378540039
-3.46102070808410645 -10.4222574234008789 -15.6838951110839844
3.11866331100463867 22.2307376861572266 17.3620548248291016
13.5109176635742188 -6.86790084838867188 -10.7139310836791992
-13.453953742980957 -14.2071027755737305 9.76456832885742188
5.33352231979370117 25.0126018524169922 -15.9044713973999023
17.3134136199951172 7.67988395690917969 -1.3185122013092041
-14.7829256057739258 19.2285842895507812 5.20475387573242188
-5.81662082672119141 23.2704238891601562 -16.4103355407714844
-16.2589645385742188 5.84813594818115234 2.59746289253234863
-11.2261190414428711 24.6013240814208984 -13.7714481353759766
5.67982244491577148 -10.6267375946044922 16.9727745056152344
6.50574874877929688 27.6997737884521484 14.4042739868164062
0.99960017204284668 6.78253269195556641 -16.2334079742431641
-10.1189699172973633 -8.90070152282714844 13.646245002746582
5.43717765808105469 -7.79548978805541992 -15.1456670761108398
-14.8019189834594727 9.42436981201171875 6.38735818862915039
11.4340524673461914 -14.6788997650146484 13.3795480728149414
5.28957939147949219 -23.1055011749267578 -15.7423467636108398
-4.63443946838378906 -29.4694366455078125 -11.811305046081543
-9.38053798675537109 -20.6183490753173828 -13.8810815811157227
-7.75925302505493164 14.9268674850463867 14.5147895812988281
-7.62781000137329102 8.14586067199707031 -15.3293285369873047
13.4303750991821289 -1.04749786853790283 10.2338228225708008
-15.8252344131469727 -1.61367416381835938 -2.5608985424041748
-2.09780716896057129 27.3975448608398438 12.4705629348754883
-12.7011833190917969 14.2913713455200195 9.28609657287597656
6.6443781852722168 28.1079483032226562 1.225258469581604
2.1419675350189209 -6.79402637481689453 -15.7653694152832031
-12.0299177169799805 -15.14129638671875 -10.9957494735717773
-5.4652862548828125 -13.3304538726806641 -15.6294126510620117
15.6622161865234375 -13.4446420669555664 -7.31777715682983398
-11.0512990951538086 18.1749305725097656 11.4146575927734375
-5.73200082778930664 8.77559661865234375 -15.7953195571899414
6.81551408767700195 6.69889926910400391 -15.0845155715942383
13.4081363677978516 27.8251495361328125 2.28705501556396484
17.1882534027099609 -0.552721977233886719 1.08624982833862305
14.2074909210205078 -17.7382545471191406 9.73411369323730469
6.51517581939697266 -30.3445854187011719 -5.36061811447143555
0.671937167644500732 -29.7214756011962891 15.3840818405151367
9.79589653015136719 27.5935707092285156 12.8841571807861328
12.289698600769043 -30.0811672210693359 4.461212158203125
-13.0905590057373047 -18.6031742095947266 -9.00283241271972656
-13.4566993713378906 -17.5540962219238281 10.0676107406616211
-12.7671747207641602 -5.03752517700195312 -9.76226902008056641
16.9410667419433594 -2.27998876571655273 -3.88188481330871582
3.64499926567077637 -24.1492443084716797 -16.1018142700195312
9.31575393676757812 -29.1903858184814453 -14.0665569305419922
-9.82454109191894531 21.1578521728515625 -14.7570037841796875
0.197371974587440491 -11.689326286315918 -16.0897922515869141
-6.20980548858642578 2.16163969039916992 15.7822437286376953
13.1949920654296875 -29.9884529113769531 -0.380057990550994873
13.9779796600341797 19.6611366271972656 -10.2594089508056641
13.0475273132324219 -7.31528329849243164 -11.2214441299438477
-10.8046674728393555 27.2332992553710938 3.03289699554443359
12.6151599884033203 -28.3946132659912109 -11.4593257904052734
4.55176687240600586 -8.15465354919433594 -15.3758525848388672
3.38512754440307617 -29.6757106781005859 -13.5259952545166016
11.6047220230102539 16.7413158416748047 -12.7462863922119141
2.78542709350585938 27.9651985168457031 12.0203380584716797
3.4806067943572998 14.4495630264282227 -16.2463741302490234
11.5109796524047852 -15.5010662078857422 -12.4195127487182617
2.03500032424926758 -29.6791324615478516 -13.7100362777709961
-15.9774627685546875 3.05626392364501953 -2.35740256309509277
15.9028701782226562 27.4632530212402344 1.87615609169006348
2.13756418228149414 27.6434001922607422 -9.7535858154296875
0.617415726184844971 -0.560695469379425049 -15.9264097213745117
-15.8634395599365234 -8.22974681854248047 -0.0854347795248031616
11.6596012115478516 20.5421810150146484 13.6648502349853516
2.13628196716308594 24.6620349884033203 -16.7422008514404297
11.3405570983886719 -2.91675734519958496 13.4213027954101562
-5.82312726974487305 -25.5689239501953125 16.3549232482910156
17.2159080505371094 6.3074650764465332 -1.80967986583709717
14.0023031234741211 -17.1342449188232422 -10.3615636825561523
-3.83253192901611328 -30.8121395111083984 5.09089326858520508
-5.68800640106201172 18.0169544219970703 -16.4912929534912109
-0.990267276763916016 5.03640937805175781 17.2168407440185547
-15.1542110443115234 26.7401351928710938 -0.0903882905840873718
-11.4817790985107422 -11.1100988388061523 -11.8256759643554688
-14.4981145858764648 -28.8337917327880859 6.55138492584228516
-8.15403938293457031 -14.3186883926391602 14.7309713363647461
-9.08645057678222656 2.28281855583190918 -14.5933198928833008
-3.9484407901763916 -30.3189048767089844 11.4584379196166992
6.05688762664794922 -17.1645908355712891 16.8790435791015625
15.5905532836914062 15.2194480895996094 -7.79254531860351562
-10.3581333160400391 -30.1235370635986328 -0.818134427070617676
-6.98069429397583008 -7.33162307739257812 15.6274843215942383
-10.7344226837158203 22.78314208984375 -14.336207389831543
-14.3922615051269531 -5.24629640579223633 -6.05838823318481445
-16.0203800201416016 -25.6355037689208984 2.68603992462158203
9.43258380889892578 12.2185287475585938 15.3893699645996094
1.78452134132385254 13.7054738998413086 17.4164943695068359
-5.49187850952148438 15.1968355178833008 15.8905305862426758
-8.35256195068359375 -30.2711296081542969 -4.34809112548828125
3.44549274444580078 27.7653522491455078 13.4016103744506836
-11.9575271606445312 23.6493072509765625 10.2515382766723633
17.1007041931152344 -9.49552440643310547 -3.26008319854736328
-2.75271725654602051 -30.0364856719970703 -3.82477402687072754
-15.7874860763549805 -8.59607028961181641 2.38663244247436523
-4.10389328002929688 -3.69693875312805176 16.4542961120605469
17.2725391387939453 -2.92432284355163574 -0.0667095780372619629
-10.6142578125 27.4525241851806641 -10.5040559768676758
-14.7811393737792969 27.4150638580322266 -0.479704886674880981
11.8853082656860352 -13.422602653503418 12.2926483154296875
-3.99517679214477539 27.1355152130126953 -7.21712064743041992
15.539154052734375 -15.9883270263671875 -7.8426365852355957
-0.983690619468688965 29.4865741729736328 -2.02636122703552246
-7.05893945693969727 27.0320549011230469 9.23960399627685547
9.54608058929443359 27.5204315185546875 -4.71047639846801758
-10.5039386749267578 27.8099613189697266 -8.05531120300292969
17.2678413391113281 9.25793933868408203 0.602726757526397705
4.01781749725341797 -24.1359748840332031 17.3402996063232422
14.7353239059448242 27.7335300445556641 -3.55441474914550781
-11.6043176651000977 -22.823486328125 -11.7143669128417969
4.83111667633056641 -27.7618579864501953 17.1736278533935547
3.7753748893737793 -23.7216682434082031 -16.08172607421875
-16.1863288879394531 3.55914592742919922 -0.588590145111083984
-2.38657689094543457 -29.5519390106201172 -11.6725902557373047
5.4337615966796875 9.84089851379394531 16.9226589202880859
17.1443805694580078 8.37928485870361328 1.23714005947113037
-0.896680235862731934 18.4918212890625 17.1173820495605469
14.6210594177246094 27.7459583282470703 3.12520027160644531
13.7840461730957031 1.38076663017272949 9.92466640472412109
-13.2442541122436523 -28.4721775054931641 -8.01385021209716797
5.78598165512084961 -15.1608095169067383 -15.2605857849121094
16.2126350402832031 -16.3304481506347656 5.49474287033081055
-0.338650703430175781 -16.4229869842529297 17.9213962554931641
8.43802642822265625 -30.3103809356689453 -2.95866298675537109
4.93847513198852539 -25.9818515777587891 -15.7437143325805664
-12.2787675857543945 2.36678075790405273 -10.8751192092895508
-3.06166291236877441 -29.6819744110107422 -13.802617073059082
0.825090467929840088 -30.4019317626953125 12.0632810592651367
8.55866909027099609 27.5043792724609375 14.1291141510009766
-15.8964471817016602 -1.64411139488220215 -2.1283714771270752
-4.0287318229675293 16.5374565124511719 16.3732433319091797
-8.07705307006835938 -20.5774497985839844 15.1788110733032227
16.8968315124511719 -30.3704853057861328 0.93004608154296875
7.51791477203369141 27.8156166076660156 -0.293743014335632324
1.63709330558776855 28.2003726959228516 10.5175466537475586
-15.9366188049316406 -1.89815235137939453 1.80847263336181641
1.11590683460235596 -29.9096736907958984 -9.11217308044433594
11.9882011413574219 -16.068328857421875 11.7954616546630859
2.09637260437011719 -13.7528705596923828 -15.9045248031616211
3.81362748146057129 -2.03555631637573242 17.3334369659423828
16.4953861236572266 -29.0565013885498047 -4.46053266525268555
-14.2919988632202148 20.9217033386230469 -9.26276683807373047
2.04215812683105469 23.2893848419189453 17.513763427734375
-10.7508392333984375 27.2006969451904297 -4.11100387573242188
-4.45849990844726562 -27.5249805450439453 -15.5864152908325195
6.35619688034057617 -25.2517814636230469 16.6540470123291016
-6.58380985260009766 -3.71371340751647949 -15.280029296875
-8.16285514831542969 -0.821466565132141113 14.5682296752929688
2.20154452323913574 -8.4557037353515625 17.4826374053955078
-4.74370813369750977 -0.155354142189025879 16.3885917663574219
-0.588664114475250244 3.34407520294189453 -16.0983943939208984
1.2540813684463501 -30.4241561889648438 -1.14967226982116699
15.8651103973388672 -6.2215113639831543 -6.82626819610595703
7.56785821914672852 9.91698837280273438 16.25897216796875
14.322148323059082 -29.3073539733886719 -9.16598892211914062
-1.56297695636749268 -2.13290190696716309 -15.9126825332641602
-10.5790824890136719 -25.6290836334228516 13.5350618362426758
16.8380813598632812 5.62313079833984375 -3.85830783843994141
12.5319070816040039 -4.44237756729125977 -11.7940092086791992
8.59154605865478516 -5.70046329498291016 -14.0944032669067383
-0.161720484495162964 -29.6034641265869141 -14.4246349334716797
-0.326246589422225952 27.966033935546875 -11.9131135940551758
-16.0111751556396484 -22.3374519348144531 -0.101458974182605743
-2.18603086471557617 -27.1496753692626953 -16.0671768188476562
-13.8792753219604492 -19.362884521484375 9.39136409759521484
8.60592174530029297 1.98994922637939453 15.9040355682373047
-13.7683649063110352 14.6989984512329102 7.6663966178894043
7.2410578727722168 -2.72922945022583008 16.4297637939453125
6.43903589248657227 4.47663211822509766 -15.1152935028076172
-14.9383516311645508 23.8931655883789062 5.83553743362426758
-2.93902420997619629 27.1592807769775391 -8.03710651397705078
-7.84676504135131836 27.2768898010253906 -2.09289956092834473
5.21576261520385742 -20.0116176605224609 -15.7922182083129883
-9.76483917236328125 27.3229389190673828 6.36237573623657227
9.84816551208496094 -8.72106742858886719 15.2277450561523438
-9.79703807830810547 -29.3951435089111328 -7.58443307876586914
9.67656612396240234 -29.7249755859375 13.0344018936157227
4.85572242736816406 -2.63561868667602539 17.07861328125
-4.26281404495239258 -30.1732730865478516 0.627384960651397705
13.4690799713134766 13.2159957885742188 -10.8329048156738281
-5.35612916946411133 -17.8818836212158203 -15.6610441207885742
1.33333981037139893 31.3390064239501953 0.0161672309041023254
15.3749475479125977 7.24460887908935547 7.6667938232421875
4.66054964065551758 27.4124908447265625 -14.7173900604248047
-11.0125083923339844 0.77478259801864624 -12.4772987365722656
16.5021076202392578 -15.918492317199707 3.65290188789367676
4.67986440658569336 -30.4457168579101562 4.45657777786254883
-1.39220333099365234 -29.6929759979248047 -11.5694770812988281
9.33343410491943359 -11.4796276092529297 15.4534111022949219
-10.6777324676513672 9.85994529724121094 12.0504255294799805
-4.03163385391235352 18.7097702026367188 -16.8328628540039062
-3.74259305000305176 -12.1935806274414062 16.8667755126953125
-14.8873052597045898 22.6571540832519531 -7.93767261505126953
17.1679229736328125 2.37576627731323242 0.558093488216400146
7.36884164810180664 -17.3143138885498047 16.4344940185546875
4.14390468597412109 -30.3302078247070312 4.87569189071655273
-15.2244195938110352 17.4373760223388672 -6.44625949859619141
-3.56904292106628418 20.6687526702880859 -16.6494998931884766
-4.83148431777954102 -6.71618509292602539 -15.4531888961791992
-13.6865949630737305 -9.55268669128417969 -7.66559219360351562
-6.45322179794311523 27.4588298797607422 5.30298519134521484
12.1614971160888672 -26.6581516265869141 13.8775701522827148
12.0682926177978516 27.8886127471923828 6.25374841690063477
3.8403623104095459 -1.12109148502349854 17.3135929107666016
-14.9689388275146484 3.01639509201049805 -5.1240386962890625
13.9232110977172852 27.7268905639648438 -5.28375959396362305
-12.9650001525878906 -29.3088169097900391 6.36652326583862305
15.5957546234130859 3.39255237579345703 7.14984369277954102
16.9654598236083984 -17.2961845397949219 3.74470257759094238
9.97301769256591797 -0.327593684196472168 -13.6162910461425781
16.8180065155029297 -21.9778728485107422 -4.85959577560424805
-15.8870477676391602 -2.49234557151794434 -1.83674371242523193
11.6648006439208984 -26.5209007263183594 14.3571920394897461
14.6487312316894531 12.6211080551147461 8.40550422668457031
12.803736686706543 -8.06168746948242188 11.2400369644165039
17.3744640350341797 13.8020648956298828 -1.46848511695861816
6.94330358505249023 3.92345333099365234 16.4876689910888672
-9.92700958251953125 -30.136383056640625 -2.66938924789428711
-2.89063262939453125 -0.0841678008437156677 -15.8749513626098633
10.6421957015991211 21.9041385650634766 14.7114696502685547
7.87065362930297852 -14.4925603866577148 -14.6794776916503906
-9.03164100646972656 0.124207943677902222 13.8630428314208984
-2.57499337196350098 28.0137615203857422 2.44202208518981934
-14.9536848068237305 14.3788604736328125 5.63157320022583008
10.7091484069824219 -30.1765499114990234 0.225635021924972534
-3.84073710441589355 -3.95032382011413574 16.5491447448730469
5.73565530776977539 -14.8910112380981445 -15.2522783279418945
-0.736887037754058838 25.5379219055175781 -17.0739974975585938
-8.25685501098632812 -29.8412322998046875 -6.82955217361450195
-15.3506956100463867 -6.50525712966918945 4.2837214469909668
-6.19717311859130859 -14.776148796081543 16.2316379547119141
14.6405954360961914 19.2339801788330078 -8.71598052978515625
-11.9135475158691406 27.6488895416259766 -3.67799115180969238
-0.28261101245880127 28.0785102844238281 13.9200763702392578
13.7613725662231445 24.9183406829833984 -9.98622989654541016
-0.659983456134796143 26.5857410430908203 16.9299468994140625
-6.83623170852661133 -30.4260005950927734 5.76437616348266602
15.5136995315551758 -29.7099781036376953 -7.91293478012084961
15.0116443634033203 -6.03532695770263672 8.01952934265136719
-15.2093439102172852 -22.9642372131347656 6.57672119140625
-14.6853408813476562 -28.717071533203125 -2.42237377166748047
12.8766584396362305 -9.73426628112792969 -11.4133319854736328
-1.58353674411773682 2.28901505470275879 17.1407871246337891
-12.4945468902587891 27.4892063140869141 -7.47856664657592773
-16.6001777648925781 12.5111026763916016 0.69954979419708252
-5.80859518051147461 27.4882164001464844 -1.11972332000732422
-12.3331737518310547 -17.2882957458496094 11.6482677459716797
-14.8795223236083984 -4.96120786666870117 5.70668745040893555
12.0664081573486328 10.2826499938964844 -11.9428949356079102
-14.2810516357421875 12.3743085861206055 -8.24426651000976562
-16.3640270233154297 7.22123050689697266 1.32910239696502686
-15.8039512634277344 -9.32509517669677734 0.100406713783740997
-10.6403713226318359 -9.79539108276367188 -13.1978054046630859
-4.02309036254882812 -30.3166255950927734 11.425816535949707
-15.9708833694458008 -1.12719392776489258 -0.886931896209716797
16.7783374786376953 6.88148784637451172 4.34593105316162109
-9.25658512115478516 -27.5079669952392578 14.6518650054931641
-2.95123815536499023 -12.332341194152832 16.9717578887939453
-12.7560653686523438 -3.91816091537475586 9.72970962524414062
-0.133078917860984802 27.6155109405517578 -13.193110466003418
-15.9347457885742188 -24.9190635681152344 3.31681537628173828
-15.5570926666259766 7.94281291961669922 4.89715576171875
-3.67083072662353516 27.882598876953125 -11.2413301467895508
-5.23436737060546875 -30.4966411590576172 -3.59183049201965332
-14.704986572265625 -21.5515727996826172 7.80699014663696289
7.42691802978515625 -29.7420768737792969 14.3397235870361328
-4.34585428237915039 27.3113746643066406 -4.93006038665771484
3.83760905265808105 18.1965789794921875 -16.3543014526367188
-14.4809808731079102 21.2431278228759766 -8.74172878265380859
14.7324457168579102 0.501671195030212402 -8.95615959167480469
16.8861980438232422 -15.7493267059326172 -1.93704366683959961
11.89337158203125 28.1551551818847656 3.93504881858825684
11.8297595977783203 27.5910491943359375 -2.1481165885925293
1.67476022243499756 12.9650850296020508 -16.5523281097412109
-9.65860652923583984 -25.3997898101806641 -13.5598163604736328
7.73445749282836914 25.8890094757080078 -14.9552726745605469
-2.04480981826782227 -30.2333431243896484 12.0643024444580078
-16.4295825958251953 8.25198459625244141 2.82817840576171875
12.1409091949462891 20.3650684356689453 11.1844635009765625
-14.0565309524536133 -27.5882835388183594 9.25465202331542969
-10.572697639465332 27.0859508514404297 -0.0269165188074111938
5.6015782356262207 -26.0684299468994141 -15.5521173477172852
7.04143381118774414 -30.5899829864501953 -1.65580737590789795
10.4718255996704102 -11.6162691116333008 -13.2825517654418945
16.6537570953369141 -28.5475521087646484 3.94861459732055664
1.62619173526763916 -15.4614267349243164 -15.8498296737670898
-11.3729057312011719 0.12375359982252121 -11.9898262023925781
10.4336967468261719 -29.4905490875244141 12.7748613357543945
-1.98087012767791748 -9.67971420288085938 -15.8625268936157227
15.79852294921875 26.5733737945556641 6.85491752624511719
17.3349208831787109 -9.43377304077148438 1.20476651191711426
-9.23366260528564453 27.0757579803466797 13.6352405548095703
2.65311574935913086 28.1775722503662109 -5.59245872497558594
-2.24554204940795898 -30.5291519165039062 -5.36941003799438477
14.5160293579101562 8.31330585479736328 8.69070911407470703
13.3463268280029297 4.49125337600708008 -10.8527030944824219
14.8729076385498047 -20.4729518890380859 -9.02774810791015625
-13.1898822784423828 -6.91172695159912109 -8.93837261199951172
13.021733283996582 0.266035288572311401 -11.1736307144165039
-0.789482235908508301 23.7825412750244141 -16.9415969848632812
-13.8789100646972656 18.5285358428955078 6.92618083953857422
6.18331193923950195 27.6109504699707031 -13.5255928039550781
-1.93174755573272705 -29.7885017395019531 -9.854217529296875
9.12397289276123047 -30.3361072540283203 -0.191652193665504456
16.4589519500732422 4.50204563140869141 5.04241514205932617
-11.2050771713256836 23.1701202392578125 11.4258260726928711
-16.3348274230957031 6.27864646911621094 -0.0249246545135974884
-15.5690441131591797 0.672445952892303467 -3.12347626686096191
9.51632118225097656 -1.25428187847137451 15.3942117691040039
-5.92980670928955078 27.22454833984375 7.93127107620239258
-5.57301521301269531 3.0079810619354248 16.0466213226318359
-15.878483772277832 7.95241022109985352 4.18890810012817383
-1.41521072387695312 27.7494430541992188 7.87692451477050781
4.39732027053833008 21.9657630920410156 -16.3790016174316406
-11.629033088684082 12.6650733947753906 10.8496150970458984
-14.6589412689208984 27.2109966278076172 -7.19835853576660156
16.9533500671386719 -28.8431777954101562 -3.32192468643188477
12.0436420440673828 -12.543701171875 -12.1548175811767578
16.8164825439453125 8.98917961120605469 3.91971540451049805
14.9411706924438477 -7.5314021110534668 -8.37802410125732422
14.6486625671386719 -4.14395904541015625 8.69513130187988281
-15.8934364318847656 -1.69306790828704834 -2.18165302276611328
16.6468276977539062 8.32373714447021484 4.76036834716796875
5.10512590408325195 27.3843574523925781 -14.6525306701660156
-15.3569765090942383 -7.14750242233276367 4.27987289428710938
1.40970349311828613 -29.6881656646728516 15.7825307846069336
9.84069442749023438 0.686200499534606934 -13.6736717224121094
-0.115558743476867676 18.6124973297119141 -16.9566535949707031
-14.3367900848388672 19.8546466827392578 -8.67970848083496094
12.9640045166015625 19.5536632537841797 -11.4961481094360352
-15.9299755096435547 -27.81463623046875 3.19186258316040039
2.88262653350830078 27.3973617553710938 -15.6220703125
-13.8877334594726562 6.84290695190429688 8.32893562316894531
-0.918349266052246094 24.7105617523193359 16.9077091217041016
16.7514019012451172 24.9982490539550781 2.32115459442138672
-9.83599090576171875 9.53708744049072266 -14.1536588668823242
-1.35425674915313721 -30.1574363708496094 -1.75380361080169678
-6.24208974838256836 3.01929163932800293 -15.5968589782714844
13.9663877487182617 3.90973591804504395 9.71018218994140625
-15.5689373016357422 -1.24062514305114746 3.98958277702331543
5.34529542922973633 -19.4923171997070312 16.9975337982177734
17.4240093231201172 -24.915069580078125 -0.14494931697845459
12.046086311340332 -14.9076881408691406 -12.0179233551025391
8.92290592193603516 -11.5805330276489258 15.7428159713745117
-8.17139148712158203 -30.4458885192871094 7.65451955795288086
7.07680892944335938 -7.08249902725219727 -14.6486644744873047
-10.9174251556396484 17.9474277496337891 -13.7077083587646484
-4.0096893310546875 27.6079959869384766 -2.15455818176269531
9.71503067016601562 23.5546035766601562 -14.4075098037719727
12.0352582931518555 21.1525859832763672 13.1690120697021484
-15.645599365234375 -14.6965799331665039 -2.3288722038269043
-8.85650348663330078 9.09251213073730469 13.9464931488037109
-5.19631052017211914 -13.3419561386108398 16.3302478790283203
-3.49328398704528809 -11.4909505844116211 -15.7317438125610352
6.38478422164916992 -30.3823451995849609 10.1156606674194336
10.9054489135742188 12.4052877426147461 14.6111860275268555
-3.3060905933380127 27.8155612945556641 14.0262813568115234
3.67810630798339844 10.2549734115600586 -16.0045242309570312
0.553518116474151611 28.3052177429199219 12.9211845397949219
7.71769523620605469 16.8353443145751953 16.2029895782470703
3.51442551612854004 -13.040715217590332 17.3046321868896484
-5.16162967681884766 27.4527206420898438 9.49538040161132812
11.5431375503540039 -25.0868167877197266 13.1747055053710938
-8.32182025909423828 -30.2863521575927734 7.63288116455078125
16.6152992248535156 5.53656291961669922 5.05235576629638672
11.9806022644042969 24.6635818481445312 11.5278396606445312
-16.4389514923095703 8.03816699981689453 1.99834442138671875
-1.05593132972717285 -25.8902244567871094 17.5517101287841797
17.3343315124511719 -22.9231891632080078 -2.3777167797088623
11.7099390029907227 -10.627568244934082 -12.5476713180541992
-4.6204228401184082 28.4133472442626953 -11.1269216537475586
13.5238046646118164 -7.54114484786987305 10.4504575729370117
0.610224783420562744 28.3705768585205078 -5.42102432250976562
-3.9327089786529541 26.7283115386962891 15.8396978378295898
0.832384824752807617 28.9222736358642578 3.53043675422668457
15.9466686248779297 -19.2032413482666016 -7.1109919548034668
-8.08162403106689453 -13.0058145523071289 -14.5988378524780273
4.29058218002319336 4.70221805572509766 -15.7317771911621094
8.408843994140625 -17.1494007110595703 16.0274562835693359
15.3915252685546875 15.1716175079345703 -8.25638294219970703
-0.0110343070700764656 8.04289722442626953 17.2664356231689453
-15.9460554122924805 -2.27454376220703125 -1.10036170482635498
10.3467922210693359 -8.34750938415527344 -13.297694206237793
-7.21334266662597656 13.3219175338745117 14.877924919128418
-5.98715639114379883 -17.376251220703125 -15.5439729690551758
15.7207660675048828 27.4221763610839844 2.90445947647094727
7.90619754791259766 5.12364482879638672 16.1015529632568359
-9.95995712280273438 26.7607479095458984 1.88671326637268066
-8.10950660705566406 -10.5848836898803711 14.9531850814819336
13.3829097747802734 -30.1492137908935547 -4.55744838714599609
-13.7203102111816406 8.45181083679199219 -8.75376224517822266
-10.0419778823852539 -29.3009891510009766 10.8567781448364258
-11.5468606948852539 12.8467874526977539 10.9456605911254883
-14.8757505416870117 21.7430801391601562 -7.87766265869140625
7.94207763671875 28.0875644683837891 -9.51603317260742188
-11.3559379577636719 -28.0910053253173828 -12.0855875015258789
-6.48501396179199219 9.86145401000976562 -15.6898326873779297
-11.0452699661254883 27.5539627075195312 4.36387968063354492
-2.10795474052429199 -30.2457370758056641 2.11558675765991211
8.893646240234375 27.6399688720703125 -5.36381387710571289
-0.686130523681640625 21.9310283660888672 -16.8703155517578125
14.2442436218261719 20.1222248077392578 -9.9931488037109375
-15.8849344253540039 19.7404766082763672 3.13506269454956055
9.71187400817871094 27.4188041687011719 -1.40229976177215576
-13.2229070663452148 19.8063488006591797 7.93348979949951172
4.68631219863891602 -19.9381084442138672 -15.927250862121582
-9.50310897827148438 -1.54071652889251709 13.6037845611572266
11.5075693130493164 -8.59987354278564453 -12.5913763046264648
-0.0493197217583656311 -30.0930347442626953 -8.15215110778808594
-7.07815980911254883 -1.66960501670837402 -15.3359775543212891
-5.21558761596679688 19.4655685424804688 -16.5126972198486328
9.82143115997314453 -4.57213401794433594 15.317570686340332
8.10790634155273438 -29.9268970489501953 11.1480779647827148
1.60477173328399658 -30.0748424530029297 -0.00543603533878922462
11.7949209213256836 19.47967529296875 12.4479923248291016
10.4154996871948242 27.7048149108886719 3.81594061851501465
14.0568065643310547 -21.0730342864990234 -10.2513713836669922
-12.4976730346679688 15.8468732833862305 9.41578483581542969
9.64099597930908203 27.5871734619140625 -9.22115612030029297
0.177055284380912781 -30.3686027526855469 8.15408706665039062
11.5899248123168945 -3.51119542121887207 13.6861658096313477
-0.601203560829162598 -30.0215740203857422 13.2096929550170898
12.179229736328125 -29.8884506225585938 8.86612892150878906
13.7829751968383789 -21.0619621276855469 10.1464834213256836
13.3163290023803711 -22.3023052215576172 -10.9794435501098633
9.2200927734375 -15.2066144943237305 -14.1309909820556641
4.94972896575927734 -30.5256786346435547 10.0656633377075195
-13.1678638458251953 9.10187625885009766 9.06698799133300781
-3.14483976364135742 -29.7333564758300781 13.2905845642089844
-15.6094284057617188 -18.6916656494140625 -2.02119922637939453
-10.9150142669677734 9.70422840118408203 11.7808437347412109
-10.6614341735839844 -29.705047607421875 4.54596900939941406
3.49537777900695801 19.4597454071044922 -16.4717864990234375
16.6144027709960938 21.3182220458984375 -4.81309175491333008
13.4473209381103516 -28.2863426208496094 10.6139116287231445
16.7778415679931641 19.3975677490234375 4.15630960464477539
-15.6552228927612305 14.1955270767211914 -4.45389413833618164
7.88458728790283203 -30.6398544311523438 -1.16921412944793701
10.8462400436401367 -29.0756874084472656 13.2352943420410156
-3.52364420890808105 27.8241310119628906 0.356211811304092407
-3.76311421394348145 -6.20987367630004883 16.8515796661376953
11.3602075576782227 5.66370248794555664 14.1170816421508789
-7.50950527191162109 -29.6294174194335938 -8.75680923461914062
7.23473930358886719 14.1499710083007812 16.3584728240966797
2.80391573905944824 -1.95921170711517334 17.4536838531494141
2.25346589088439941 -29.2164211273193359 -15.0284576416015625
12.6849908828735352 -19.1712608337402344 11.4652929306030273
10.3126077651977539 -30.0272941589355469 -9.87000274658203125
-14.5291404724121094 4.83670377731323242 -6.42512035369873047
-12.5642271041870117 -10.1161994934082031 -10.0287113189697266
-14.3328342437744141 -22.8295555114746094 -6.31422281265258789
17.1588039398193359 19.4259109497070312 -1.43527233600616455
17.1762866973876953 13.0368490219116211 -2.61091256141662598
17.3923625946044922 -10.4683923721313477 -0.1199636310338974
5.81843709945678711 -30.2326126098632812 -1.04176688194274902
-13.8546829223632812 -20.9331111907958984 -7.45261001586914062
-6.97335720062255859 -8.78074359893798828 15.4882898330688477
-15.6929836273193359 27.0137596130371094 -7.0470428466796875
6.88752269744873047 10.3022270202636719 -15.0326461791992188
-4.15313148498535156 10.146397590637207 -16.2343578338623047
16.7286968231201172 -29.1666603088378906 -3.75075602531433105
-3.56640076637268066 23.7050647735595703 16.6072216033935547
13.4283905029296875 -13.8711566925048828 10.4485034942626953
-14.9231777191162109 21.8546619415283203 -7.76015233993530273
-13.9484052658081055 -20.4531173706054688 9.35458183288574219
16.8147811889648438 13.9398155212402344 2.82532644271850586
-1.47184669971466064 6.84986114501953125 -16.2284927368164062
-4.64681625366210938 5.11656618118286133 -15.835047721862793
-14.1011238098144531 -22.1415538787841797 -6.90243768692016602
9.05537891387939453 16.0760097503662109 15.6022424697875977
9.43896961212158203 23.1712741851806641 -14.6217260360717773
-9.85990238189697266 -6.35440969467163086 -13.7612037658691406
-16.2333660125732422 -16.0557746887207031 3.4524843692779541
-14.8238162994384766 -4.30171966552734375 5.84038734436035156
6.60560274124145508 -7.09321975708007812 -14.8005876541137695
1.450439453125 -12.7309169769287109 -16.032257080078125
-15.0678920745849609 -28.5372962951660156 5.11253118515014648
0.730650424957275391 -21.0555591583251953 17.6759033203125
0.867646574974060059 30.9325981140136719 -3.19340944290161133
-3.23368382453918457 -30.6948604583740234 10.6980810165405273
16.1481666564941406 -19.7504787445068359 6.11268758773803711
13.1573104858398438 -16.4277572631835938 10.6548967361450195
-7.50581169128417969 27.2289276123046875 9.27718734741210938
-16.3199501037597656 -15.3373231887817383 1.51712310314178467
3.66414809226989746 27.5475711822509766 -10.262822151184082
-16.3425083160400391 9.63342189788818359 -1.26590025424957275
-13.3282709121704102 -6.11338424682617188 8.96483039855957031
10.2703847885131836 23.6401557922363281 14.9275913238525391
17.0897560119628906 8.29262161254882812 1.85535335540771484
-0.156139880418777466 0.990747749805450439 17.4276752471923828
-1.53056955337524414 -16.4710311889648438 17.5526084899902344
2.23917269706726074 -30.0882225036621094 -4.41194677352905273
5.72317314147949219 -15.0240335464477539 -15.2659597396850586
6.14548587799072266 -30.3733596801757812 -0.948582768440246582
-9.91838169097900391 -4.50050878524780273 -13.9676008224487305
17.1257896423339844 -0.0201660003513097763 1.59220147132873535
16.4112987518310547 9.11084270477294922 5.57234096527099609
2.62140488624572754 27.9273300170898438 12.5205392837524414
8.29919815063476562 -30.0211181640625 10.4895296096801758
-15.8627166748046875 -12.4413166046142578 0.433387488126754761
12.8687238693237305 0.951564610004425049 -11.3603134155273438
6.34728431701660156 -30.5359458923339844 3.8545536994934082
-7.86785221099853516 27.7398357391357422 14.036005973815918
-8.15310382843017578 10.0781126022338867 -15.2721748352050781
16.5705413818359375 -11.3972978591918945 3.50652551651000977
-4.10987377166748047 9.45472240447998047 -16.1593265533447266
14.7719650268554688 24.1645412445068359 -8.99794673919677734
-12.0406217575073242 27.5904903411865234 -0.778137683868408203
-16.5818080902099609 12.1379480361938477 1.09287393093109131
17.3059539794921875 12.7994775772094727 0.599733233451843262
17.3689918518066406 -22.1347560882568359 -2.07702922821044922
-16.0828323364257812 24.4812774658203125 3.28595495223999023
-3.0460515022277832 -24.12896728515625 17.1720542907714844
4.29400873184204102 19.0242290496826172 -16.1738605499267578
-15.3700809478759766 -16.8612785339355469 -3.06539773941040039
-8.34465980529785156 10.9157009124755859 14.1509561538696289
3.6265265941619873 -16.1456298828125 -15.599177360534668
-12.9626684188842773 -28.0825614929199219 10.9507560729980469
11.9224100112915039 -25.7039451599121094 13.3225622177124023
-4.62785959243774414 27.6830539703369141 12.9203147888183594
-13.0935420989990234 -23.7887916564941406 -9.47547817230224609
0.583940386772155762 31.1664943695068359 -2.23890209197998047
14.9985456466674805 15.1708431243896484 7.87439060211181641
12.4968318939208984 -0.106177546083927155 11.3461189270019531
17.1936779022216797 22.5357666015625 -1.60938668251037598
13.9448776245117188 -27.6313495635986328 -10.2291469573974609
-8.86823272705078125 -30.443450927734375 -1.62184786796569824
3.04654097557067871 -30.6613712310791016 6.58048439025878906
16.1483936309814453 -28.4222965240478516 5.82103300094604492
13.8670406341552734 -15.2625036239624023 -10.1181001663208008
1.13312816619873047 -30.2403049468994141 8.26353263854980469
-4.67745161056518555 15.5488576889038086 -16.7897319793701172
5.11560630798339844 -28.4568977355957031 16.8595695495605469
0.159869074821472168 27.6312274932861328 -6.61184263229370117
-7.16214132308959961 27.9922409057617188 12.559269905090332
-0.0533619187772274017 -1.62505626678466797 17.3378143310546875
17.2173690795898438 19.4108600616455078 -0.171728387475013733
15.4970273971557617 27.5207004547119141 -2.56717014312744141
-1.46345901489257812 -10.5756072998046875 -15.9613609313964844
10.0719223022460938 -15.0278739929199219 15.0017213821411133
17.2566547393798828 15.2060337066650391 -1.55583977699279785
-10.9241981506347656 -3.92536449432373047 12.4473171234130859
-6.90106296539306641 27.9463672637939453 13.4633369445800781
-8.74817943572998047 19.6946506500244141 -15.2034177780151367
1.62693512439727783 19.5934619903564453 17.4178066253662109
15.9631023406982422 -6.05319881439208984 6.17033672332763672
14.3725128173828125 -14.1596527099609375 -9.74415683746337891
-0.483447760343551636 -10.4178180694580078 -16.0795345306396484
15.0589494705200195 -6.50250816345214844 8.03945350646972656
0.997444570064544678 -16.7801265716552734 -16.0522632598876953
-1.37510669231414795 -20.0777149200439453 17.4463424682617188
12.9420013427734375 13.1175642013549805 10.8258161544799805
2.7957005500793457 17.5257167816162109 -16.5626335144042969
-12.0372133255004883 14.1549358367919922 10.2299518585205078
12.7733469009399414 26.8278484344482422 -10.8178195953369141
-15.3184909820556641 -24.2328929901123047 -3.24450564384460449
-14.4991369247436523 7.15889835357666016 -6.7082371711730957
16.0350456237792969 -21.7433414459228516 -7.7586359977722168
-9.33339309692382812 -16.6626815795898438 14.2180643081665039
17.1579418182373047 0.145951688289642334 1.28615498542785645
-0.529082834720611572 24.6290664672851562 16.9635353088378906
-3.10365438461303711 8.00763893127441406 16.9146919250488281
-14.2787990570068359 -9.88998603820800781 -6.15749073028564453
7.11974287033081055 -13.5958080291748047 16.4642562866210938
-1.31606161594390869 -29.2771530151367188 16.3655910491943359
-4.39775753021240234 -30.4170169830322266 -4.26169443130493164
4.18236064910888672 3.63582634925842285 17.1716842651367188
-15.2517576217651367 10.9146251678466797 5.43789005279541016
11.1571311950683594 23.5434532165527344 12.9650974273681641
-10.0405006408691406 -17.6353302001953125 13.7053337097167969
-5.97324371337890625 -20.65374755859375 -15.4810152053833008
-5.16498899459838867 15.8692541122436523 -16.6633586883544922
-3.64416146278381348 27.2114353179931641 15.4802732467651367
7.2794804573059082 -19.4981651306152344 -15.2109556198120117
-3.54493284225463867 27.2338600158691406 -10.2184638977050781
-1.51779890060424805 -30.4937095642089844 5.4916534423828125
5.08723640441894531 27.848388671875 3.96711397171020508
-14.9308843612670898 16.5195293426513672 -7.20022392272949219
17.3348407745361328 -16.9102210998535156 -0.811909079551696777
-6.91164445877075195 -27.8568954467773438 15.937321662902832
6.44546175003051758 26.6266593933105469 16.6315460205078125
15.734492301940918 -21.3108673095703125 7.03410053253173828
3.05159139633178711 30.1391639709472656 -2.27275395393371582
-2.27175021171569824 -30.2309055328369141 11.7602872848510742
-2.27746081352233887 2.67008137702941895 -15.9782543182373047
-7.7621150016784668 1.58202064037322998 14.8310441970825195
13.624638557434082 1.13174283504486084 -10.5908527374267578
11.0822334289550781 -2.81574320793151855 14.4456415176391602
-0.365631192922592163 30.5016536712646484 -1.01756453514099121
-1.1778717041015625 23.7880096435546875 17.1899261474609375
11.3748817443847656 27.5380210876464844 -11.9848299026489258
-10.1302576065063477 7.77011537551879883 12.7310523986816406
13.9245395660400391 -15.7357587814331055 -10.0989370346069336
10.8170232772827148 -13.4887590408325195 14.6779451370239258
-7.77554035186767578 -22.4471836090087891 -14.7998838424682617
-15.155430793762207 -0.30967247486114502 -4.31056833267211914
15.8055362701416016 16.5990104675292969 -7.23436641693115234
-11.4967279434204102 16.4751319885253906 -13.2925205230712891
6.10553789138793945 -6.63388586044311523 -14.9365205764770508
7.84277200698852539 -29.720916748046875 14.1181859970092773
-9.35076999664306641 0.173947989940643311 13.5541820526123047
-14.4281587600708008 7.43517589569091797 -6.92028427124023438
17.4045181274414062 -26.9297351837158203 0.928534150123596191
-7.88455533981323242 -30.3761959075927734 0.863627731800079346
-1.09657347202301025 7.49066877365112305 -16.2892227172851562
-4.37120866775512695 4.00017356872558594 -15.8300037384033203
-12.3285408020019531 -7.4069666862487793 10.5951995849609375
1.22451210021972656 8.17411231994628906 17.3788604736328125
17.1020164489746094 13.7279939651489258 -3.20100808143615723
-14.7556896209716797 -9.10307788848876953 6.39923334121704102
-14.5226879119873047 5.31968784332275391 -6.48638010025024414
11.3136882781982422 -9.90828704833984375 13.0732736587524414
-6.89984512329101562 11.5905742645263672 15.1199970245361328
6.88535833358764648 -12.9590950012207031 16.5766563415527344
17.3148612976074219 -6.99205780029296875 -2.0221555233001709
-2.09724330902099609 -30.3277053833007812 4.38700580596923828
8.06099891662597656 -24.2393665313720703 15.974884033203125
13.6648073196411133 9.98198223114013672 9.92430973052978516
10.9118032455444336 -21.6706714630126953 14.6747636795043945
12.1408767700195312 21.7207565307617188 -12.4215164184570312
-16.0244560241699219 -22.7794036865234375 2.6014866828918457
-15.9279670715332031 -26.7545089721679688 3.67885947227478027
-15.5287628173828125 -25.7229976654052734 5.43577957153320312
7.06170940399169922 26.5398311614990234 -15.310816764831543
-2.06535720825195312 -9.44728374481201172 17.2465839385986328
1.98966503143310547 27.1812629699707031 -16.1786575317382812
-8.40269279479980469 2.4110109806060791 -14.9794826507568359
17.391204833984375 -26.9412994384765625 1.07964646816253662
